-22.700001 -107.2 2.6140001
-22.799999 -107.2 2.552
-22.9 -107.2 2.474
-23 -107.2 2.3859999
-23.1 -107.2 2.3074999
-23.200001 -107.2 2.2395
-23.299999 -107.2 2.1695001
-23.4 -107.2 2.0915
-23.5 -107.2 2.0090001
-23.6 -107.2 1.9255
-23.700001 -107.2 1.847
-23.799999 -107.2 1.773
-23.9 -107.2 1.697
-24 -107.2 1.6165
-24.1 -107.2 1.5325
-24.200001 -107.2 1.443
-24.299999 -107.2 1.36
-24.4 -107.2 1.2925
-24.5 -107.2 1.225
-24.6 -107.2 1.1515
-24.700001 -107.2 1.073
-24.799999 -107.2 0.98549998
-24.9 -107.2 0.89649999
-25 -107.2 0.81650001
-25.1 -107.2 0.73900002
-25.200001 -107.2 0.65649998
-25.299999 -107.2 0.574
-25.4 -107.2 0.49599999
-25.5 -107.2 0.419
-25.6 -107.2 0.3335
-25.700001 -107.2 0.23999999
-5.5 -107.4 15.528
-5.5999999 -107.4 15.417
-5.6999998 -107.4 15.2755
-5.8000002 -107.4 15.215
-5.9000001 -107.4 15.23
-6 -107.4 15.204
-6.0999999 -107.4 15.125
-6.1999998 -107.4 15.037
-6.3000002 -107.4 14.964
-6.4000001 -107.4 14.905
-6.5 -107.4 14.8415
-6.5999999 -107.4 14.778
-6.6999998 -107.4 14.713
-6.8000002 -107.4 14.628
-6.9000001 -107.4 14.546
-7 -107.4 14.4815
-7.0999999 -107.4 14.408
-7.1999998 -107.4 14.3285
-7.3000002 -107.4 14.2625
-7.4000001 -107.4 14.196
-7.5 -107.4 14.1195
-7.5999999 -107.4 14.052
-7.6999998 -107.4 13.995
-7.8000002 -107.4 13.923
-7.9000001 -107.4 13.8385
-8 -107.4 13.764
-8.1000004 -107.4 13.683
-8.1999998 -107.4 13.5985
-8.3000002 -107.4 13.5295
-8.3999996 -107.4 13.4615
-8.5 -107.4 13.3845
-8.6000004 -107.4 13.307
-8.6999998 -107.4 13.241
-8.8000002 -107.4 13.179
-8.8999996 -107.4 13.1035
-9 -107.4 13.0225
-9.1000004 -107.4 12.9485
-9.1999998 -107.4 12.8825
-9.3000002 -107.4 12.8145
-9.3999996 -107.4 12.735
-9.5 -107.4 12.648
-9.6000004 -107.4 12.5725
-9.6999998 -107.4 12.5085
-9.8000002 -107.4 12.433
-9.8999996 -107.4 12.354
-10 -107.4 12.2865
-10.1 -107.4 12.2175
-10.2 -107.4 12.142
-10.3 -107.4 12.068
-10.4 -107.4 11.9975
-10.5 -107.4 11.929
-10.6 -107.4 11.861
-10.7 -107.4 11.799
-10.8 -107.4 11.726
-10.9 -107.4 11.64
-11 -107.4 11.5605
-11.1 -107.4 11.4845
-11.2 -107.4 11.4045
-11.3 -107.4 11.336
-11.4 -107.4 11.2755
-11.5 -107.4 11.195
-11.6 -107.4 11.1145
-11.7 -107.4 11.049
-11.8 -107.4 10.977
-11.9 -107.4 10.899
-12 -107.4 10.8235
-12.1 -107.4 10.742
-12.2 -107.4 10.654
-12.3 -107.4 10.577
-12.4 -107.4 10.5115
-12.5 -107.4 10.4415
-12.6 -107.4 10.3705
-12.7 -107.4 10.2965
-12.8 -107.4 10.2135
-12.9 -107.4 10.1305
-13 -107.4 10.042
-13.1 -107.4 9.9425001
-13.2 -107.4 9.8514996
-13.3 -107.4 9.7779999
-13.4 -107.4 9.7084999
-13.5 -107.4 9.632
-13.6 -107.4 9.5469999
-13.7 -107.4 9.4729996
-13.8 -107.4 9.4239998
-13.9 -107.4 9.3924999
-17.4 -107.4 6.4159999
-17.5 -107.4 6.4645
-17.6 -107.4 6.4569998
-17.700001 -107.4 6.4130001
-17.799999 -107.4 6.3534999
-17.9 -107.4 6.2909999
-18 -107.4 6.2294998
-18.1 -107.4 6.1564999
-18.200001 -107.4 6.0815001
-18.299999 -107.4 6.0215001
-18.4 -107.4 5.9590001
-18.5 -107.4 5.8794999
-18.6 -107.4 5.7975001
-18.700001 -107.4 5.7245002
-18.799999 -107.4 5.6479998
-18.9 -107.4 5.5605001
-19 -107.4 5.4885001
-19.1 -107.4 5.427
-19.200001 -107.4 5.3520002
-19.299999 -107.4 5.2804999
-19.4 -107.4 5.2115002
-19.5 -107.4 5.1240001
-19.6 -107.4 5.0355
-19.700001 -107.4 4.9685001
-19.799999 -107.4 4.8979998
-19.9 -107.4 4.8084998
-20 -107.4 4.7270002
-20.1 -107.4 4.6545
-20.200001 -107.4 4.5739999
-20.299999 -107.4 4.4965
-20.4 -107.4 4.4289999
-20.5 -107.4 4.3559999
-20.6 -107.4 4.2795
-20.700001 -107.4 4.211
-20.799999 -107.4 4.1409998
-20.9 -107.4 4.0545001
-21 -107.4 3.9590001
-21.1 -107.4 3.882
-21.200001 -107.4 3.812
-21.299999 -107.4 3.7295001
-21.4 -107.4 3.6429999
-21.5 -107.4 3.5534999
-21.6 -107.4 3.4625001
-21.700001 -107.4 3.3965001
-21.799999 -107.4 3.348
-21.9 -107.4 3.2755001
-22 -107.4 3.188
-22.1 -107.4 3.1094999
-22.200001 -107.4 3.03
-22.299999 -107.4 2.9419999
-22.4 -107.4 2.858
-22.5 -107.4 2.7925
-22.6 -107.4 2.7325001
-22.700001 -107.4 2.655
-22.799999 -107.4 2.5634999
-22.9 -107.4 2.4705
-23 -107.4 2.3835001
-23.1 -107.4 2.3069999
-23.200001 -107.4 2.2360001
-23.299999 -107.4 2.1654999
-23.4 -107.4 2.095
-23.5 -107.4 2.0255001
-23.6 -107.4 1.9475
-23.700001 -107.4 1.8635
-23.799999 -107.4 1.786
-23.9 -107.4 1.709
-24 -107.4 1.631
-24.1 -107.4 1.557
-24.200001 -107.4 1.4725
-24.299999 -107.4 1.3825001
-24.4 -107.4 1.3115
-24.5 -107.4 1.2435
-24.6 -107.4 1.1555001
-24.700001 -107.4 1.059
-24.799999 -107.4 0.96749997
-24.9 -107.4 0.88950002
-25 -107.4 0.82749999
-25.1 -107.4 0.759
-25.200001 -107.4 0.6735
-25.299999 -107.4 0.57999998
-25.4 -107.4 0.4975
-25.5 -107.4 0.42050001
-25.6 -107.4 0.32800001
-25.700001 -107.4 0.2395
-5.5 -107.6 15.5405
-5.5999999 -107.6 15.465
-5.6999998 -107.6 15.402
-5.8000002 -107.6 15.33
-5.9000001 -107.6 15.2625
-6 -107.6 15.2065
-6.0999999 -107.6 15.1295
-6.1999998 -107.6 15.0365
-6.3000002 -107.6 14.9595
-6.4000001 -107.6 14.8955
-6.5 -107.6 14.823
-6.5999999 -107.6 14.7475
-6.6999998 -107.6 14.676
-6.8000002 -107.6 14.602
-6.9000001 -107.6 14.5395
-7 -107.6 14.4775
-7.0999999 -107.6 14.393
-7.1999998 -107.6 14.3125
-7.3000002 -107.6 14.2605
-7.4000001 -107.6 14.2135
-7.5 -107.6 14.1425
-7.5999999 -107.6 14.0575
-7.6999998 -107.6 13.9685
-7.8000002 -107.6 13.8795
-7.9000001 -107.6 13.808
-8 -107.6 13.754
-8.1000004 -107.6 13.691
-8.1999998 -107.6 13.6085
-8.3000002 -107.6 13.529
-8.3999996 -107.6 13.451
-8.5 -107.6 13.376
-8.6000004 -107.6 13.321
-8.6999998 -107.6 13.269
-8.8000002 -107.6 13.1965
-8.8999996 -107.6 13.115
-9 -107.6 13.028
-9.1000004 -107.6 12.9305
-9.1999998 -107.6 12.86
-9.3000002 -107.6 12.811
-9.3999996 -107.6 12.738
-9.5 -107.6 12.643
-9.6000004 -107.6 12.5685
-9.6999998 -107.6 12.5185
-9.8000002 -107.6 12.4545
-9.8999996 -107.6 12.3785
-10 -107.6 12.3115
-10.1 -107.6 12.2285
-10.2 -107.6 12.13
-10.3 -107.6 12.0405
-10.4 -107.6 11.953
-10.5 -107.6 11.8805
-10.6 -107.6 11.8315
-10.7 -107.6 11.781
-10.8 -107.6 11.7145
-10.9 -107.6 11.642
-11 -107.6 11.575
-11.1 -107.6 11.499
-11.2 -107.6 11.418
-11.3 -107.6 11.348
-11.4 -107.6 11.275
-11.5 -107.6 11.191
-11.6 -107.6 11.1165
-11.7 -107.6 11.052
-11.8 -107.6 10.982
-11.9 -107.6 10.905
-12 -107.6 10.8255
-12.1 -107.6 10.742
-12.2 -107.6 10.653
-12.3 -107.6 10.565
-12.4 -107.6 10.485
-12.5 -107.6 10.417
-12.6 -107.6 10.36
-12.7 -107.6 10.289
-12.8 -107.6 10.1915
-12.9 -107.6 10.102
-13 -107.6 10.0365
-13.1 -107.6 9.9619999
-13.2 -107.6 9.8684998
-13.3 -107.6 9.7775002
-13.4 -107.6 9.7065001
-13.5 -107.6 9.6634998
-13.6 -107.6 9.6295004
-13.7 -107.6 9.5930004
-13.8 -107.6 9.5579996
-17.5 -107.6 6.1475
-17.6 -107.6 6.2519999
-17.700001 -107.6 6.309
-17.799999 -107.6 6.3010001
-17.9 -107.6 6.2585001
-18 -107.6 6.2115002
-18.1 -107.6 6.1630001
-18.200001 -107.6 6.098
-18.299999 -107.6 6.0300002
-18.4 -107.6 5.9699998
-18.5 -107.6 5.8905001
-18.6 -107.6 5.8004999
-18.700001 -107.6 5.7315001
-18.799999 -107.6 5.6690001
-18.9 -107.6 5.592
-19 -107.6 5.5100002
-19.1 -107.6 5.4365001
-19.200001 -107.6 5.3649998
-19.299999 -107.6 5.2915001
-19.4 -107.6 5.2205
-19.5 -107.6 5.1424999
-19.6 -107.6 5.0539999
-19.700001 -107.6 4.9819999
-19.799999 -107.6 4.9184999
-19.9 -107.6 4.8264999
-20 -107.6 4.7275
-20.1 -107.6 4.6490002
-20.200001 -107.6 4.5679998
-20.299999 -107.6 4.4835
-20.4 -107.6 4.4250002
-20.5 -107.6 4.3765001
-20.6 -107.6 4.3074999
-20.700001 -107.6 4.2270002
-20.799999 -107.6 4.1360002
-20.9 -107.6 4.039
-21 -107.6 3.9579999
-21.1 -107.6 3.8929999
-21.200001 -107.6 3.8234999
-21.299999 -107.6 3.7414999
-21.4 -107.6 3.6600001
-21.5 -107.6 3.5875001
-21.6 -107.6 3.5074999
-21.700001 -107.6 3.4200001
-21.799999 -107.6 3.3395
-21.9 -107.6 3.2574999
-22 -107.6 3.1795001
-22.1 -107.6 3.118
-22.200001 -107.6 3.0504999
-22.299999 -107.6 2.9649999
-22.4 -107.6 2.878
-22.5 -107.6 2.8
-22.6 -107.6 2.7249999
-22.700001 -107.6 2.6465001
-22.799999 -107.6 2.5669999
-22.9 -107.6 2.4865
-23 -107.6 2.4085
-23.1 -107.6 2.3334999
-23.200001 -107.6 2.253
-23.299999 -107.6 2.1675
-23.4 -107.6 2.0855
-23.5 -107.6 2.0090001
-23.6 -107.6 1.9305
-23.700001 -107.6 1.855
-23.799999 -107.6 1.7905
-23.9 -107.6 1.721
-24 -107.6 1.6339999
-24.1 -107.6 1.5420001
-24.200001 -107.6 1.448
-24.299999 -107.6 1.3515
-24.4 -107.6 1.275
-24.5 -107.6 1.2185
-24.6 -107.6 1.1535
-24.700001 -107.6 1.0825
-24.799999 -107.6 1.0105
-24.9 -107.6 0.91850001
-25 -107.6 0.82249999
-25.1 -107.6 0.74949998
-25.200001 -107.6 0.68449998
-25.299999 -107.6 0.602
-25.4 -107.6 0.51349998
-25.5 -107.6 0.4215
-25.6 -107.6 0.31650001
-25.700001 -107.6 0.2255
-5.5 -107.8 15.5235
-5.5999999 -107.8 15.4235
-5.6999998 -107.8 15.279
-5.8000002 -107.8 15.207
-5.9000001 -107.8 15.2255
-6 -107.8 15.212
-6.0999999 -107.8 15.1325
-6.1999998 -107.8 15.036
-6.3000002 -107.8 14.9625
-6.4000001 -107.8 14.912
-6.5 -107.8 14.848
-6.5999999 -107.8 14.7695
-6.6999998 -107.8 14.699
-6.8000002 -107.8 14.624
-6.9000001 -107.8 14.5535
-7 -107.8 14.4895
-7.0999999 -107.8 14.4115
-7.1999998 -107.8 14.333
-7.3000002 -107.8 14.273
-7.4000001 -107.8 14.216
-7.5 -107.8 14.135
-7.5999999 -107.8 14.0435
-7.6999998 -107.8 13.9685
-7.8000002 -107.8 13.899
-7.9000001 -107.8 13.832
-8 -107.8 13.7745
-8.1000004 -107.8 13.7065
-8.1999998 -107.8 13.621
-8.3000002 -107.8 13.5445
-8.3999996 -107.8 13.4745
-8.5 -107.8 13.391
-8.6000004 -107.8 13.315
-8.6999998 -107.8 13.258
-8.8000002 -107.8 13.202
-8.8999996 -107.8 13.136
-9 -107.8 13.06
-9.1000004 -107.8 12.9855
-9.1999998 -107.8 12.9065
-9.3000002 -107.8 12.827
-9.3999996 -107.8 12.7485
-9.5 -107.8 12.661
-9.6000004 -107.8 12.5875
-9.6999998 -107.8 12.527
-9.8000002 -107.8 12.4495
-9.8999996 -107.8 12.3675
-10 -107.8 12.2985
-10.1 -107.8 12.2225
-10.2 -107.8 12.144
-10.3 -107.8 12.0745
-10.4 -107.8 11.99
-10.5 -107.8 11.9055
-10.6 -107.8 11.8485
-10.7 -107.8 11.8025
-10.8 -107.8 11.739
-10.9 -107.8 11.653
-11 -107.8 11.569
-11.1 -107.8 11.495
-11.2 -107.8 11.422
-11.3 -107.8 11.3515
-11.4 -107.8 11.279
-11.5 -107.8 11.204
-11.6 -107.8 11.135
-11.7 -107.8 11.06
-11.8 -107.8 10.97
-11.9 -107.8 10.8855
-12 -107.8 10.8175
-12.1 -107.8 10.745
-12.2 -107.8 10.6565
-12.3 -107.8 10.5775
-12.4 -107.8 10.5085
-12.5 -107.8 10.4325
-12.6 -107.8 10.362
-12.7 -107.8 10.2855
-12.8 -107.8 10.198
-12.9 -107.8 10.118
-13 -107.8 10.0345
-13.1 -107.8 9.9359999
-13.2 -107.8 9.8505001
-13.3 -107.8 9.7819996
-13.4 -107.8 9.7294998
-13.5 -107.8 9.7150002
-13.6 -107.8 9.7030001
-17.700001 -107.8 6.0040002
-17.799999 -107.8 6.0749998
-17.9 -107.8 6.1069999
-18 -107.8 6.1065001
-18.1 -107.8 6.0764999
-18.200001 -107.8 6.033
-18.299999 -107.8 5.9835
-18.4 -107.8 5.9305
-18.5 -107.8 5.8804998
-18.6 -107.8 5.823
-18.700001 -107.8 5.7480001
-18.799999 -107.8 5.6659999
-18.9 -107.8 5.5879998
-19 -107.8 5.513
-19.1 -107.8 5.4295001
-19.200001 -107.8 5.3390002
-19.299999 -107.8 5.2665
-19.4 -107.8 5.2129998
-19.5 -107.8 5.1475
-19.6 -107.8 5.0630002
-19.700001 -107.8 4.9854999
-19.799999 -107.8 4.9159999
-19.9 -107.8 4.8330002
-20 -107.8 4.7470002
-20.1 -107.8 4.6655002
-20.200001 -107.8 4.5799999
-20.299999 -107.8 4.5015001
-20.4 -107.8 4.4435
-20.5 -107.8 4.3779998
-20.6 -107.8 4.2950001
-20.700001 -107.8 4.223
-20.799999 -107.8 4.1570001
-20.9 -107.8 4.0689998
-21 -107.8 3.9725001
-21.1 -107.8 3.8875
-21.200001 -107.8 3.7969999
-21.299999 -107.8 3.7079999
-21.4 -107.8 3.642
-21.5 -107.8 3.582
-21.6 -107.8 3.5055001
-21.700001 -107.8 3.4224999
-21.799999 -107.8 3.349
-21.9 -107.8 3.2709999
-22 -107.8 3.1930001
-22.1 -107.8 3.1259999
-22.200001 -107.8 3.053
-22.299999 -107.8 2.9645
-22.4 -107.8 2.8759999
-22.5 -107.8 2.7965
-22.6 -107.8 2.7260001
-22.700001 -107.8 2.6570001
-22.799999 -107.8 2.5734999
-22.9 -107.8 2.4779999
-23 -107.8 2.3900001
-23.1 -107.8 2.3175001
-23.200001 -107.8 2.2520001
-23.299999 -107.8 2.1775
-23.4 -107.8 2.0934999
-23.5 -107.8 2.013
-23.6 -107.8 1.932
-23.700001 -107.8 1.855
-23.799999 -107.8 1.789
-23.9 -107.8 1.7085
-24 -107.8 1.6185
-24.1 -107.8 1.5415
-24.200001 -107.8 1.462
-24.299999 -107.8 1.3789999
-24.4 -107.8 1.3055
-24.5 -107.8 1.233
-24.6 -107.8 1.1535
-24.700001 -107.8 1.0625
-24.799999 -107.8 0.96850002
-24.9 -107.8 0.8955
-25 -107.8 0.83149999
-25.1 -107.8 0.7615
-25.200001 -107.8 0.68900001
-25.299999 -107.8 0.60549998
-25.4 -107.8 0.51550001
-25.5 -107.8 0.43149999
-25.6 -107.8 0.34349999
-25.700001 -107.8 0.25749999
-5.5 -108 15.5315
-5.5999999 -108 15.472
-5.6999998 -108 15.4075
-5.8000002 -108 15.3365
-5.9000001 -108 15.267
-6 -108 15.199
-6.0999999 -108 15.1265
-6.1999998 -108 15.054
-6.3000002 -108 14.987
-6.4000001 -108 14.916
-6.5 -108 14.837
-6.5999999 -108 14.7675
-6.6999998 -108 14.7085
-6.8000002 -108 14.6415
-6.9000001 -108 14.5725
-7 -108 14.5105
-7.0999999 -108 14.4305
-7.1999998 -108 14.335
-7.3000002 -108 14.2665
-7.4000001 -108 14.2185
-7.5 -108 14.1585
-7.5999999 -108 14.085
-7.6999998 -108 14.0135
-7.8000002 -108 13.9355
-7.9000001 -108 13.8505
-8 -108 13.7845
-8.1000004 -108 13.7275
-8.1999998 -108 13.6505
-8.3000002 -108 13.5545
-8.3999996 -108 13.4565
-8.5 -108 13.3755
-8.6000004 -108 13.316
-8.6999998 -108 13.2615
-8.8000002 -108 13.1915
-8.8999996 -108 13.113
-9 -108 13.0425
-9.1000004 -108 12.9725
-9.1999998 -108 12.8935
-9.3000002 -108 12.822
-9.3999996 -108 12.745
-9.5 -108 12.6455
-9.6000004 -108 12.5585
-9.6999998 -108 12.504
-9.8000002 -108 12.446
-9.8999996 -108 12.3675
-10 -108 12.284
-10.1 -108 12.2
-10.2 -108 12.128
-10.3 -108 12.0725
-10.4 -108 12.0045
-10.5 -108 11.9265
-10.6 -108 11.8605
-10.7 -108 11.8
-10.8 -108 11.727
-10.9 -108 11.646
-11 -108 11.5735
-11.1 -108 11.497
-11.2 -108 11.4095
-11.3 -108 11.3395
-11.4 -108 11.2705
-11.5 -108 11.18
-11.6 -108 11.0985
-11.7 -108 11.039
-11.8 -108 10.9815
-11.9 -108 10.909
-12 -108 10.8305
-12.1 -108 10.752
-12.2 -108 10.663
-12.3 -108 10.581
-12.4 -108 10.506
-12.5 -108 10.4205
-12.6 -108 10.3475
-12.7 -108 10.2775
-12.8 -108 10.186
-12.9 -108 10.098
-13 -108 10.026
-13.1 -108 9.9554996
-13.2 -108 9.8664999
-13.3 -108 9.7834997
-13.4 -108 9.7340002
-17.4 -108 5.2989998
-17.5 -108 5.4355001
-17.6 -108 5.5545001
-17.700001 -108 5.6585002
-17.799999 -108 5.7655001
-17.9 -108 5.8670001
-18 -108 5.9475002
-18.1 -108 6.0009999
-18.200001 -108 6.0155001
-18.299999 -108 5.9755001
-18.4 -108 5.9070001
-18.5 -108 5.8505001
-18.6 -108 5.8000002
-18.700001 -108 5.7424998
-18.799999 -108 5.6824999
-18.9 -108 5.612
-19 -108 5.5304999
-19.1 -108 5.4559999
-19.200001 -108 5.3864999
-19.299999 -108 5.3119998
-19.4 -108 5.2329998
-19.5 -108 5.1420002
-19.6 -108 5.0495
-19.700001 -108 4.9815001
-19.799999 -108 4.915
-19.9 -108 4.8210001
-20 -108 4.73
-20.1 -108 4.652
-20.200001 -108 4.572
-20.299999 -108 4.507
-20.4 -108 4.454
-20.5 -108 4.381
-20.6 -108 4.3010001
-20.700001 -108 4.2325001
-20.799999 -108 4.1570001
-20.9 -108 4.0675001
-21 -108 3.9809999
-21.1 -108 3.9054999
-21.200001 -108 3.8269999
-21.299999 -108 3.7509999
-21.4 -108 3.6914999
-21.5 -108 3.6229999
-21.6 -108 3.533
-21.700001 -108 3.448
-21.799999 -108 3.3710001
-21.9 -108 3.2780001
-22 -108 3.188
-22.1 -108 3.119
-22.200001 -108 3.0480001
-22.299999 -108 2.9649999
-22.4 -108 2.885
-22.5 -108 2.809
-22.6 -108 2.7249999
-22.700001 -108 2.6415
-22.799999 -108 2.5645001
-22.9 -108 2.4805
-23 -108 2.3929999
-23.1 -108 2.3185
-23.200001 -108 2.2509999
-23.299999 -108 2.181
-23.4 -108 2.1070001
-23.5 -108 2.0285001
-23.6 -108 1.944
-23.700001 -108 1.862
-23.799999 -108 1.791
-23.9 -108 1.723
-24 -108 1.6465
-24.1 -108 1.562
-24.200001 -108 1.473
-24.299999 -108 1.388
-24.4 -108 1.3099999
-24.5 -108 1.233
-24.6 -108 1.1555001
-24.700001 -108 1.0815001
-24.799999 -108 1.0140001
-24.9 -108 0.94349998
-25 -108 0.86150002
-25.1 -108 0.77749997
-25.200001 -108 0.69599998
-25.299999 -108 0.61949998
-25.4 -108 0.54049999
-25.5 -108 0.45300001
-25.6 -108 0.36300001
-25.700001 -108 0.26499999
-5.5 -108.2 15.5615
-5.5999999 -108.2 15.4805
-5.6999998 -108.2 15.407
-5.8000002 -108.2 15.336
-5.9000001 -108.2 15.2655
-6 -108.2 15.2
-6.0999999 -108.2 15.1295
-6.1999998 -108.2 15.0595
-6.3000002 -108.2 14.993
-6.4000001 -108.2 14.9185
-6.5 -108.2 14.836
-6.5999999 -108.2 14.7615
-6.6999998 -108.2 14.687
-6.8000002 -108.2 14.5985
-6.9000001 -108.2 14.536
-7 -108.2 14.4925
-7.0999999 -108.2 14.42
-7.1999998 -108.2 14.3355
-7.3000002 -108.2 14.2675
-7.4000001 -108.2 14.2055
-7.5 -108.2 14.1335
-7.5999999 -108.2 14.058
-7.6999998 -108.2 13.972
-7.8000002 -108.2 13.882
-7.9000001 -108.2 13.8255
-8 -108.2 13.7665
-8.1000004 -108.2 13.6715
-8.1999998 -108.2 13.5925
-8.3000002 -108.2 13.5425
-8.3999996 -108.2 13.482
-8.5 -108.2 13.4065
-8.6000004 -108.2 13.338
-8.6999998 -108.2 13.2755
-8.8000002 -108.2 13.2025
-8.8999996 -108.2 13.1185
-9 -108.2 13.0255
-9.1000004 -108.2 12.931
-9.1999998 -108.2 12.862
-9.3000002 -108.2 12.8145
-9.3999996 -108.2 12.747
-9.5 -108.2 12.6555
-9.6000004 -108.2 12.5825
-9.6999998 -108.2 12.5305
-9.8000002 -108.2 12.4625
-9.8999996 -108.2 12.379
-10 -108.2 12.3025
-10.1 -108.2 12.2295
-10.2 -108.2 12.1555
-10.3 -108.2 12.082
-10.4 -108.2 12.0085
-10.5 -108.2 11.939
-10.6 -108.2 11.869
-10.7 -108.2 11.801
-10.8 -108.2 11.727
-10.9 -108.2 11.6465
-11 -108.2 11.577
-11.1 -108.2 11.4975
-11.2 -108.2 11.4055
-11.3 -108.2 11.3435
-11.4 -108.2 11.288
-11.5 -108.2 11.196
-11.6 -108.2 11.111
-11.7 -108.2 11.0545
-11.8 -108.2 10.9905
-11.9 -108.2 10.91
-12 -108.2 10.8185
-12.1 -108.2 10.72
-12.2 -108.2 10.638
-12.3 -108.2 10.582
-12.4 -108.2 10.5195
-12.5 -108.2 10.437
-12.6 -108.2 10.362
-12.7 -108.2 10.288
-12.8 -108.2 10.197
-12.9 -108.2 10.1085
-13 -108.2 10.041
-13.1 -108.2 9.9834995
-13.2 -108.2 9.9420004
-13.3 -108.2 9.9045
-17.4 -108.2 4.9825001
-17.5 -108.2 5.1269999
-17.6 -108.2 5.2655001
-17.700001 -108.2 5.381
-17.799999 -108.2 5.4850001
-17.9 -108.2 5.6015
-18 -108.2 5.7395
-18.1 -108.2 5.8629999
-18.200001 -108.2 5.9345002
-18.299999 -108.2 5.9510002
-18.4 -108.2 5.9184999
-18.5 -108.2 5.8594999
-18.6 -108.2 5.7954998
-18.700001 -108.2 5.7265
-18.799999 -108.2 5.6459999
-18.9 -108.2 5.5574999
-19 -108.2 5.4879999
-19.1 -108.2 5.4454999
-19.200001 -108.2 5.3959999
-19.299999 -108.2 5.3189998
-19.4 -108.2 5.2315001
-19.5 -108.2 5.1455002
-19.6 -108.2 5.0650001
-19.700001 -108.2 4.9875002
-19.799999 -108.2 4.9039998
-19.9 -108.2 4.8225002
-20 -108.2 4.7420001
-20.1 -108.2 4.6605
-20.200001 -108.2 4.585
-20.299999 -108.2 4.5190001
-20.4 -108.2 4.4524999
-20.5 -108.2 4.3699999
-20.6 -108.2 4.2855
-20.700001 -108.2 4.2179999
-20.799999 -108.2 4.1490002
-20.9 -108.2 4.0609999
-21 -108.2 3.9705
-21.1 -108.2 3.8929999
-21.200001 -108.2 3.8185
-21.299999 -108.2 3.7465
-21.4 -108.2 3.678
-21.5 -108.2 3.602
-21.6 -108.2 3.5165
-21.700001 -108.2 3.4375
-21.799999 -108.2 3.3635001
-21.9 -108.2 3.2820001
-22 -108.2 3.2035
-22.1 -108.2 3.1289999
-22.200001 -108.2 3.0485001
-22.299999 -108.2 2.9614999
-22.4 -108.2 2.878
-22.5 -108.2 2.812
-22.6 -108.2 2.743
-22.700001 -108.2 2.6545
-22.799999 -108.2 2.566
-22.9 -108.2 2.4814999
-23 -108.2 2.4024999
-23.1 -108.2 2.3385
-23.200001 -108.2 2.2709999
-23.299999 -108.2 2.1905
-23.4 -108.2 2.1135001
-23.5 -108.2 2.0474999
-23.6 -108.2 1.975
-23.700001 -108.2 1.8890001
-23.799999 -108.2 1.8055
-23.9 -108.2 1.72
-24 -108.2 1.6375
-24.1 -108.2 1.5705
-24.200001 -108.2 1.4935
-24.299999 -108.2 1.3985
-24.4 -108.2 1.3105
-24.5 -108.2 1.2285
-24.6 -108.2 1.151
-24.700001 -108.2 1.0795
-24.799999 -108.2 1.003
-24.9 -108.2 0.92699999
-25 -108.2 0.85100001
-25.1 -108.2 0.76599997
-25.200001 -108.2 0.67549998
-25.299999 -108.2 0.59450001
-25.4 -108.2 0.5255
-25.5 -108.2 0.44499999
-25.6 -108.2 0.34599999
-25.700001 -108.2 0.25600001
-5.5 -108.4 15.5265
-5.5999999 -108.4 15.4615
-5.6999998 -108.4 15.415
-5.8000002 -108.4 15.3615
-5.9000001 -108.4 15.281
-6 -108.4 15.1945
-6.0999999 -108.4 15.1175
-6.1999998 -108.4 15.04
-6.3000002 -108.4 14.944
-6.4000001 -108.4 14.8525
-6.5 -108.4 14.803
-6.5999999 -108.4 14.758
-6.6999998 -108.4 14.694
-6.8000002 -108.4 14.6225
-6.9000001 -108.4 14.5505
-7 -108.4 14.4915
-7.0999999 -108.4 14.4235
-7.1999998 -108.4 14.341
-7.3000002 -108.4 14.2715
-7.4000001 -108.4 14.2065
-7.5 -108.4 14.125
-7.5999999 -108.4 14.0475
-7.6999998 -108.4 13.987
-7.8000002 -108.4 13.919
-7.9000001 -108.4 13.8315
-8 -108.4 13.7545
-8.1000004 -108.4 13.695
-8.1999998 -108.4 13.6275
-8.3000002 -108.4 13.5565
-8.3999996 -108.4 13.4875
-8.5 -108.4 13.4115
-8.6000004 -108.4 13.3405
-8.6999998 -108.4 13.272
-8.8000002 -108.4 13.194
-8.8999996 -108.4 13.116
-9 -108.4 13.043
-9.1000004 -108.4 12.9645
-9.1999998 -108.4 12.8825
-9.3000002 -108.4 12.8105
-9.3999996 -108.4 12.7355
-9.5 -108.4 12.646
-9.6000004 -108.4 12.57
-9.6999998 -108.4 12.5115
-9.8000002 -108.4 12.444
-9.8999996 -108.4 12.37
-10 -108.4 12.315
-10.1 -108.4 12.2555
-10.2 -108.4 12.167
-10.3 -108.4 12.0815
-10.4 -108.4 11.9975
-10.5 -108.4 11.9115
-10.6 -108.4 11.843
-10.7 -108.4 11.782
-10.8 -108.4 11.709
-10.9 -108.4 11.6395
-11 -108.4 11.583
-11.1 -108.4 11.5035
-11.2 -108.4 11.4
-11.3 -108.4 11.321
-11.4 -108.4 11.2635
-11.5 -108.4 11.1925
-11.6 -108.4 11.119
-11.7 -108.4 11.058
-11.8 -108.4 10.9915
-11.9 -108.4 10.911
-12 -108.4 10.8275
-12.1 -108.4 10.739
-12.2 -108.4 10.647
-12.3 -108.4 10.5665
-12.4 -108.4 10.4865
-12.5 -108.4 10.4005
-12.6 -108.4 10.3225
-12.7 -108.4 10.247
-12.8 -108.4 10.172
-12.9 -108.4 10.112
-13 -108.4 10.0645
-13.1 -108.4 10.019
-17.6 -108.4 5.0089998
-17.700001 -108.4 5.112
-17.799999 -108.4 5.2014999
-17.9 -108.4 5.3119998
-18 -108.4 5.4425001
-18.1 -108.4 5.586
-18.200001 -108.4 5.7284999
-18.299999 -108.4 5.8140001
-18.4 -108.4 5.8270001
-18.5 -108.4 5.8080001
-18.6 -108.4 5.7680001
-18.700001 -108.4 5.7115002
-18.799999 -108.4 5.6479998
-18.9 -108.4 5.5679998
-19 -108.4 5.4935002
-19.1 -108.4 5.4475002
-19.200001 -108.4 5.3864999
-19.299999 -108.4 5.3004999
-19.4 -108.4 5.2249999
-19.5 -108.4 5.1440001
-19.6 -108.4 5.0479999
-19.700001 -108.4 4.9699998
-19.799999 -108.4 4.8985
-19.9 -108.4 4.8080001
-20 -108.4 4.7290001
-20.1 -108.4 4.6659999
-20.200001 -108.4 4.5995002
-20.299999 -108.4 4.5314999
-20.4 -108.4 4.46
-20.5 -108.4 4.3769999
-20.6 -108.4 4.2944999
-20.700001 -108.4 4.2305002
-20.799999 -108.4 4.1684999
-20.9 -108.4 4.0910001
-21 -108.4 4.0089998
-21.1 -108.4 3.9315
-21.200001 -108.4 3.849
-21.299999 -108.4 3.7574999
-21.4 -108.4 3.6705
-21.5 -108.4 3.5899999
-21.6 -108.4 3.5105
-21.700001 -108.4 3.4454999
-21.799999 -108.4 3.3859999
-21.9 -108.4 3.2974999
-22 -108.4 3.2
-22.1 -108.4 3.1215
-22.200001 -108.4 3.0510001
-22.299999 -108.4 2.9790001
-22.4 -108.4 2.9024999
-22.5 -108.4 2.8080001
-22.6 -108.4 2.7035
-22.700001 -108.4 2.6185
-22.799999 -108.4 2.5574999
-22.9 -108.4 2.4979999
-23 -108.4 2.418
-23.1 -108.4 2.325
-23.200001 -108.4 2.2525001
-23.299999 -108.4 2.1935
-23.4 -108.4 2.1264999
-23.5 -108.4 2.052
-23.6 -108.4 1.9685
-23.700001 -108.4 1.8815
-23.799999 -108.4 1.8045
-23.9 -108.4 1.7345001
-24 -108.4 1.66
-24.1 -108.4 1.5795
-24.200001 -108.4 1.4875
-24.299999 -108.4 1.392
-24.4 -108.4 1.3035001
-24.5 -108.4 1.215
-24.6 -108.4 1.132
-24.700001 -108.4 1.0615
-24.799999 -108.4 0.99000001
-24.9 -108.4 0.91049999
-25 -108.4 0.83149999
-25.1 -108.4 0.76249999
-25.200001 -108.4 0.6925
-25.299999 -108.4 0.60949999
-25.4 -108.4 0.52450001
-25.5 -108.4 0.44949999
-25.6 -108.4 0.37349999
-25.700001 -108.4 0.28349999
-5.5 -108.6 15.5455
-5.5999999 -108.6 15.48
-5.6999998 -108.6 15.4185
-5.8000002 -108.6 15.349
-5.9000001 -108.6 15.279
-6 -108.6 15.2165
-6.0999999 -108.6 15.146
-6.1999998 -108.6 15.0395
-6.3000002 -108.6 14.866
-6.4000001 -108.6 14.7515
-6.5 -108.6 14.7775
-6.5999999 -108.6 14.772
-6.6999998 -108.6 14.7025
-6.8000002 -108.6 14.6335
-6.9000001 -108.6 14.5625
-7 -108.6 14.4945
-7.0999999 -108.6 14.417
-7.1999998 -108.6 14.3425
-7.3000002 -108.6 14.2795
-7.4000001 -108.6 14.2145
-7.5 -108.6 14.144
-7.5999999 -108.6 14.0675
-7.6999998 -108.6 13.98
-7.8000002 -108.6 13.8935
-7.9000001 -108.6 13.8255
-8 -108.6 13.7795
-8.1000004 -108.6 13.72
-8.1999998 -108.6 13.6305
-8.3000002 -108.6 13.544
-8.3999996 -108.6 13.4685
-8.5 -108.6 13.3945
-8.6000004 -108.6 13.3275
-8.6999998 -108.6 13.2675
-8.8000002 -108.6 13.201
-8.8999996 -108.6 13.12
-9 -108.6 13.035
-9.1000004 -108.6 12.9565
-9.1999998 -108.6 12.888
-9.3000002 -108.6 12.82
-9.3999996 -108.6 12.7405
-9.5 -108.6 12.652
-9.6000004 -108.6 12.5785
-9.6999998 -108.6 12.525
-9.8000002 -108.6 12.4625
-9.8999996 -108.6 12.381
-10 -108.6 12.3035
-10.1 -108.6 12.2375
-10.2 -108.6 12.161
-10.3 -108.6 12.0745
-10.4 -108.6 12.008
-10.5 -108.6 11.947
-10.6 -108.6 11.868
-10.7 -108.6 11.7915
-10.8 -108.6 11.718
-10.9 -108.6 11.6425
-11 -108.6 11.5785
-11.1 -108.6 11.514
-11.2 -108.6 11.4305
-11.3 -108.6 11.346
-11.4 -108.6 11.279
-11.5 -108.6 11.214
-11.6 -108.6 11.1405
-11.7 -108.6 11.0655
-11.8 -108.6 10.988
-11.9 -108.6 10.911
-12 -108.6 10.837
-12.1 -108.6 10.7495
-12.2 -108.6 10.645
-12.3 -108.6 10.5565
-12.4 -108.6 10.486
-12.5 -108.6 10.4065
-12.6 -108.6 10.323
-12.7 -108.6 10.2465
-12.8 -108.6 10.1835
-12.9 -108.6 10.1435
-13 -108.6 10.135
-17.700001 -108.6 4.8885002
-17.799999 -108.6 5.0235
-17.9 -108.6 5.1560001
-18 -108.6 5.2735
-18.1 -108.6 5.3744998
-18.200001 -108.6 5.4864998
-18.299999 -108.6 5.6085
-18.4 -108.6 5.7049999
-18.5 -108.6 5.7470002
-18.6 -108.6 5.7214999
-18.700001 -108.6 5.6690001
-18.799999 -108.6 5.6195002
-18.9 -108.6 5.5644999
-19 -108.6 5.4970002
-19.1 -108.6 5.4219999
-19.200001 -108.6 5.3520002
-19.299999 -108.6 5.296
-19.4 -108.6 5.2350001
-19.5 -108.6 5.1469998
-19.6 -108.6 5.0545001
-19.700001 -108.6 4.9794998
-19.799999 -108.6 4.9000001
-19.9 -108.6 4.816
-20 -108.6 4.7435002
-20.1 -108.6 4.6725001
-20.200001 -108.6 4.5939999
-20.299999 -108.6 4.5145001
-20.4 -108.6 4.4404998
-20.5 -108.6 4.3699999
-20.6 -108.6 4.2969999
-20.700001 -108.6 4.23
-20.799999 -108.6 4.1634998
-20.9 -108.6 4.0770001
-21 -108.6 3.9755001
-21.1 -108.6 3.8845
-21.200001 -108.6 3.8085001
-21.299999 -108.6 3.737
-21.4 -108.6 3.6689999
-21.5 -108.6 3.6015
-21.6 -108.6 3.5295
-21.700001 -108.6 3.4579999
-21.799999 -108.6 3.3870001
-21.9 -108.6 3.3039999
-22 -108.6 3.2130001
-22.1 -108.6 3.1324999
-22.200001 -108.6 3.0595
-22.299999 -108.6 2.9765
-22.4 -108.6 2.8900001
-22.5 -108.6 2.813
-22.6 -108.6 2.7395
-22.700001 -108.6 2.6619999
-22.799999 -108.6 2.5795
-22.9 -108.6 2.49
-23 -108.6 2.3985
-23.1 -108.6 2.319
-23.200001 -108.6 2.2505
-23.299999 -108.6 2.1795001
-23.4 -108.6 2.1064999
-23.5 -108.6 2.027
-23.6 -108.6 1.9414999
-23.700001 -108.6 1.865
-23.799999 -108.6 1.7920001
-23.9 -108.6 1.715
-24 -108.6 1.6445
-24.1 -108.6 1.5835
-24.200001 -108.6 1.5105
-24.299999 -108.6 1.4145
-24.4 -108.6 1.3145
-24.5 -108.6 1.2255
-24.6 -108.6 1.15
-24.700001 -108.6 1.082
-24.799999 -108.6 1.0065
-24.9 -108.6 0.92500001
-25 -108.6 0.84850001
-25.1 -108.6 0.773
-25.200001 -108.6 0.69849998
-25.299999 -108.6 0.61900002
-25.4 -108.6 0.5255
-25.5 -108.6 0.426
-25.6 -108.6 0.33050001
-25.700001 -108.6 0.243
-5.5 -108.8 15.519
-5.5999999 -108.8 15.4505
-5.6999998 -108.8 15.388
-5.8000002 -108.8 15.318
-5.9000001 -108.8 15.2525
-6 -108.8 15.1915
-6.0999999 -108.8 15.1335
-6.1999998 -108.8 15.073
-6.3000002 -108.8 14.9955
-6.4000001 -108.8 14.9145
-6.5 -108.8 14.8415
-6.5999999 -108.8 14.778
-6.6999998 -108.8 14.724
-6.8000002 -108.8 14.661
-6.9000001 -108.8 14.5855
-7 -108.8 14.4715
-7.0999999 -108.8 14.32
-7.1999998 -108.8 14.243
-7.3000002 -108.8 14.2425
-7.4000001 -108.8 14.2055
-7.5 -108.8 14.1325
-7.5999999 -108.8 14.062
-7.6999998 -108.8 13.998
-7.8000002 -108.8 13.922
-7.9000001 -108.8 13.8375
-8 -108.8 13.77
-8.1000004 -108.8 13.694
-8.1999998 -108.8 13.6115
-8.3000002 -108.8 13.5465
-8.3999996 -108.8 13.48
-8.5 -108.8 13.3985
-8.6000004 -108.8 13.3225
-8.6999998 -108.8 13.264
-8.8000002 -108.8 13.1945
-8.8999996 -108.8 13.1055
-9 -108.8 13.0235
-9.1000004 -108.8 12.951
-9.1999998 -108.8 12.879
-9.3000002 -108.8 12.814
-9.3999996 -108.8 12.7445
-9.5 -108.8 12.662
-9.6000004 -108.8 12.587
-9.6999998 -108.8 12.529
-9.8000002 -108.8 12.464
-9.8999996 -108.8 12.38
-10 -108.8 12.3015
-10.1 -108.8 12.239
-10.2 -108.8 12.171
-10.3 -108.8 12.091
-10.4 -108.8 12.018
-10.5 -108.8 11.9555
-10.6 -108.8 11.882
-10.7 -108.8 11.804
-10.8 -108.8 11.73
-10.9 -108.8 11.654
-11 -108.8 11.578
-11.1 -108.8 11.4945
-11.2 -108.8 11.41
-11.3 -108.8 11.3495
-11.4 -108.8 11.306
-11.5 -108.8 11.2475
-11.6 -108.8 11.1645
-11.7 -108.8 11.0705
-11.8 -108.8 10.9785
-11.9 -108.8 10.895
-12 -108.8 10.817
-12.1 -108.8 10.727
-12.2 -108.8 10.635
-12.3 -108.8 10.5695
-12.4 -108.8 10.505
-12.5 -108.8 10.4155
-12.6 -108.8 10.3385
-12.7 -108.8 10.28
-12.8 -108.8 10.2265
-12.9 -108.8 10.182
-17.9 -108.8 4.915
-18 -108.8 5.0295
-18.1 -108.8 5.1434999
-18.200001 -108.8 5.2715001
-18.299999 -108.8 5.4035001
-18.4 -108.8 5.5194998
-18.5 -108.8 5.6059999
-18.6 -108.8 5.6500001
-18.700001 -108.8 5.6535001
-18.799999 -108.8 5.6325002
-18.9 -108.8 5.585
-19 -108.8 5.5064998
-19.1 -108.8 5.4285002
-19.200001 -108.8 5.3664999
-19.299999 -108.8 5.302
-19.4 -108.8 5.2275
-19.5 -108.8 5.1420002
-19.6 -108.8 5.0549998
-19.700001 -108.8 4.9854999
-19.799999 -108.8 4.9165001
-19.9 -108.8 4.8319998
-20 -108.8 4.7575002
-20.1 -108.8 4.6904998
-20.200001 -108.8 4.599
-20.299999 -108.8 4.5050001
-20.4 -108.8 4.4415002
-20.5 -108.8 4.3769999
-20.6 -108.8 4.2950001
-20.700001 -108.8 4.2164998
-20.799999 -108.8 4.1399999
-20.9 -108.8 4.0560002
-21 -108.8 3.971
-21.1 -108.8 3.8935001
-21.200001 -108.8 3.8215001
-21.299999 -108.8 3.7509999
-21.4 -108.8 3.6784999
-21.5 -108.8 3.6015
-21.6 -108.8 3.5220001
-21.700001 -108.8 3.4484999
-21.799999 -108.8 3.3824999
-21.9 -108.8 3.3055
-22 -108.8 3.2179999
-22.1 -108.8 3.1375
-22.200001 -108.8 3.0565
-22.299999 -108.8 2.9584999
-22.4 -108.8 2.8729999
-22.5 -108.8 2.822
-22.6 -108.8 2.7585001
-22.700001 -108.8 2.6624999
-22.799999 -108.8 2.566
-22.9 -108.8 2.4760001
-23 -108.8 2.3965001
-23.1 -108.8 2.3315001
-23.200001 -108.8 2.2590001
-23.299999 -108.8 2.1854999
-23.4 -108.8 2.1285
-23.5 -108.8 2.0639999
-23.6 -108.8 1.9615
-23.700001 -108.8 1.8505
-23.799999 -108.8 1.7785
-23.9 -108.8 1.724
-24 -108.8 1.6535
-24.1 -108.8 1.5795
-24.200001 -108.8 1.503
-24.299999 -108.8 1.4095
-24.4 -108.8 1.3095
-24.5 -108.8 1.2244999
-24.6 -108.8 1.158
-24.700001 -108.8 1.096
-24.799999 -108.8 1.0295
-24.9 -108.8 0.95499998
-25 -108.8 0.87300003
-25.1 -108.8 0.79299998
-25.200001 -108.8 0.70499998
-25.299999 -108.8 0.60750002
-25.4 -108.8 0.5205
-25.5 -108.8 0.44299999
-25.6 -108.8 0.35299999
-25.700001 -108.8 0.25999999
-5.5 -109 15.55
-5.5999999 -109 15.4795
-5.6999998 -109 15.416
-5.8000002 -109 15.3445
-5.9000001 -109 15.2705
-6 -109 15.203
-6.0999999 -109 15.1255
-6.1999998 -109 15.046
-6.3000002 -109 14.986
-6.4000001 -109 14.9345
-6.5 -109 14.8685
-6.5999999 -109 14.791
-6.6999998 -109 14.711
-6.8000002 -109 14.616
-6.9000001 -109 14.5345
-7 -109 14.487
-7.0999999 -109 14.4345
-7.1999998 -109 14.361
-7.3000002 -109 14.293
-7.4000001 -109 14.2285
-7.5 -109 14.1415
-7.5999999 -109 14.05
-7.6999998 -109 13.9695
-7.8000002 -109 13.8915
-7.9000001 -109 13.8345
-8 -109 13.7925
-8.1000004 -109 13.725
-8.1999998 -109 13.6325
-8.3000002 -109 13.5555
-8.3999996 -109 13.4875
-8.5 -109 13.4045
-8.6000004 -109 13.323
-8.6999998 -109 13.2455
-8.8000002 -109 13.171
-8.8999996 -109 13.1105
-9 -109 13.0515
-9.1000004 -109 12.9745
-9.1999998 -109 12.8935
-9.3000002 -109 12.829
-9.3999996 -109 12.7555
-9.5 -109 12.662
-9.6000004 -109 12.5835
-9.6999998 -109 12.522
-9.8000002 -109 12.4485
-9.8999996 -109 12.3725
-10 -109 12.319
-10.1 -109 12.261
-10.2 -109 12.17
-10.3 -109 12.079
-10.4 -109 12.0055
-10.5 -109 11.931
-10.6 -109 11.859
-10.7 -109 11.791
-10.8 -109 11.714
-10.9 -109 11.643
-11 -109 11.594
-11.1 -109 11.5355
-11.2 -109 11.445
-11.3 -109 11.36
-11.4 -109 11.2895
-11.5 -109 11.198
-11.6 -109 11.1165
-11.7 -109 11.057
-11.8 -109 10.9735
-11.9 -109 10.866
-12 -109 10.775
-12.1 -109 10.712
-12.2 -109 10.651
-12.3 -109 10.5835
-12.4 -109 10.501
-12.5 -109 10.415
-12.6 -109 10.352
-12.7 -109 10.3025
-12.8 -109 10.255
-17.9 -109 4.7465
-18 -109 4.8629999
-18.1 -109 4.9889998
-18.200001 -109 5.1234999
-18.299999 -109 5.2410002
-18.4 -109 5.3474998
-18.5 -109 5.4664998
-18.6 -109 5.5700002
-18.700001 -109 5.6059999
-18.799999 -109 5.5904999
-18.9 -109 5.5485001
-19 -109 5.4819999
-19.1 -109 5.4134998
-19.200001 -109 5.3449998
-19.299999 -109 5.2709999
-19.4 -109 5.2030001
-19.5 -109 5.1329999
-19.6 -109 5.0570002
-19.700001 -109 4.9889998
-19.799999 -109 4.9274998
-19.9 -109 4.8555002
-20 -109 4.7754998
-20.1 -109 4.6954999
-20.200001 -109 4.6139998
-20.299999 -109 4.5300002
-20.4 -109 4.454
-20.5 -109 4.3870001
-20.6 -109 4.3144999
-20.700001 -109 4.2399998
-20.799999 -109 4.1634998
-20.9 -109 4.0805001
-21 -109 3.9990001
-21.1 -109 3.9230001
-21.200001 -109 3.8494999
-21.299999 -109 3.7704999
-21.4 -109 3.6860001
-21.5 -109 3.6025
-21.6 -109 3.5165
-21.700001 -109 3.4354999
-21.799999 -109 3.3740001
-21.9 -109 3.3065
-22 -109 3.2190001
-22.1 -109 3.1405001
-22.200001 -109 3.0680001
-22.299999 -109 2.9814999
-22.4 -109 2.891
-22.5 -109 2.813
-22.6 -109 2.7405
-22.700001 -109 2.6635001
-22.799999 -109 2.5804999
-22.9 -109 2.4905
-23 -109 2.4045
-23.1 -109 2.3329999
-23.200001 -109 2.267
-23.299999 -109 2.198
-23.4 -109 2.119
-23.5 -109 2.0350001
-23.6 -109 1.962
-23.700001 -109 1.893
-23.799999 -109 1.8135
-23.9 -109 1.7335
-24 -109 1.6615
-24.1 -109 1.582
-24.200001 -109 1.4910001
-24.299999 -109 1.4045
-24.4 -109 1.3255
-24.5 -109 1.2424999
-24.6 -109 1.1569999
-24.700001 -109 1.076
-24.799999 -109 0.99599999
-24.9 -109 0.91649997
-25 -109 0.84500003
-25.1 -109 0.77999997
-25.200001 -109 0.70999998
-25.299999 -109 0.63200003
-25.4 -109 0.54949999
-25.5 -109 0.45950001
-25.6 -109 0.36199999
-25.700001 -109 0.266
-5.5 -109.2 15.5455
-5.5999999 -109.2 15.4825
-5.6999998 -109.2 15.42
-5.8000002 -109.2 15.3495
-5.9000001 -109.2 15.277
-6 -109.2 15.219
-6.0999999 -109.2 15.1635
-6.1999998 -109.2 15.082
-6.3000002 -109.2 14.994
-6.4000001 -109.2 14.9265
-6.5 -109.2 14.8645
-6.5999999 -109.2 14.7975
-6.6999998 -109.2 14.729
-6.8000002 -109.2 14.656
-6.9000001 -109.2 14.5875
-7 -109.2 14.52
-7.0999999 -109.2 14.444
-7.1999998 -109.2 14.3635
-7.3000002 -109.2 14.2865
-7.4000001 -109.2 14.214
-7.5 -109.2 14.1405
-7.5999999 -109.2 14.063
-7.6999998 -109.2 13.981
-7.8000002 -109.2 13.911
-7.9000001 -109.2 13.8575
-8 -109.2 13.803
-8.1000004 -109.2 13.73
-8.1999998 -109.2 13.6395
-8.3000002 -109.2 13.552
-8.3999996 -109.2 13.4725
-8.5 -109.2 13.4035
-8.6000004 -109.2 13.346
-8.6999998 -109.2 13.281
-8.8000002 -109.2 13.1975
-8.8999996 -109.2 13.1135
-9 -109.2 13.0475
-9.1000004 -109.2 12.975
-9.1999998 -109.2 12.888
-9.3000002 -109.2 12.8215
-9.3999996 -109.2 12.7565
-9.5 -109.2 12.671
-9.6000004 -109.2 12.598
-9.6999998 -109.2 12.5335
-9.8000002 -109.2 12.45
-9.8999996 -109.2 12.3645
-10 -109.2 12.307
-10.1 -109.2 12.256
-10.2 -109.2 12.183
-10.3 -109.2 12.1055
-10.4 -109.2 12.034
-10.5 -109.2 11.9615
-10.6 -109.2 11.8855
-10.7 -109.2 11.8075
-10.8 -109.2 11.7305
-10.9 -109.2 11.649
-11 -109.2 11.5685
-11.1 -109.2 11.4965
-11.2 -109.2 11.4295
-11.3 -109.2 11.361
-11.4 -109.2 11.2795
-11.5 -109.2 11.1925
-11.6 -109.2 11.116
-11.7 -109.2 11.0415
-11.8 -109.2 10.96
-11.9 -109.2 10.882
-12 -109.2 10.8195
-12.1 -109.2 10.7515
-12.2 -109.2 10.66
-12.3 -109.2 10.574
-12.4 -109.2 10.4925
-12.5 -109.2 10.4025
-12.6 -109.2 10.3355
-12.7 -109.2 10.3015
-12.8 -109.2 10.289
-18.1 -109.2 4.8344998
-18.200001 -109.2 4.9454999
-18.299999 -109.2 5.0755
-18.4 -109.2 5.2189999
-18.5 -109.2 5.3594999
-18.6 -109.2 5.4794998
-18.700001 -109.2 5.5495
-18.799999 -109.2 5.5475001
-18.9 -109.2 5.5079999
-19 -109.2 5.4695001
-19.1 -109.2 5.4245
-19.200001 -109.2 5.3715
-19.299999 -109.2 5.3080001
-19.4 -109.2 5.2344999
-19.5 -109.2 5.1574998
-19.6 -109.2 5.0704999
-19.700001 -109.2 4.9879999
-19.799999 -109.2 4.9130001
-19.9 -109.2 4.8334999
-20 -109.2 4.7600002
-20.1 -109.2 4.6875
-20.200001 -109.2 4.5995002
-20.299999 -109.2 4.5194998
-20.4 -109.2 4.4645
-20.5 -109.2 4.3985
-20.6 -109.2 4.3065
-20.700001 -109.2 4.2199998
-20.799999 -109.2 4.1424999
-20.9 -109.2 4.0595002
-21 -109.2 3.9795001
-21.1 -109.2 3.9100001
-21.200001 -109.2 3.8369999
-21.299999 -109.2 3.7535
-21.4 -109.2 3.6760001
-21.5 -109.2 3.602
-21.6 -109.2 3.5209999
-21.700001 -109.2 3.45
-21.799999 -109.2 3.3894999
-21.9 -109.2 3.312
-22 -109.2 3.2290001
-22.1 -109.2 3.158
-22.200001 -109.2 3.0780001
-22.299999 -109.2 2.9744999
-22.4 -109.2 2.8775001
-22.5 -109.2 2.8134999
-22.6 -109.2 2.7455001
-22.700001 -109.2 2.6530001
-22.799999 -109.2 2.5695
-22.9 -109.2 2.497
-23 -109.2 2.4230001
-23.1 -109.2 2.3469999
-23.200001 -109.2 2.266
-23.299999 -109.2 2.1889999
-23.4 -109.2 2.1175001
-23.5 -109.2 2.0439999
-23.6 -109.2 1.9565001
-23.700001 -109.2 1.867
-23.799999 -109.2 1.7975
-23.9 -109.2 1.723
-24 -109.2 1.6365
-24.1 -109.2 1.557
-24.200001 -109.2 1.4859999
-24.299999 -109.2 1.4095
-24.4 -109.2 1.3214999
-24.5 -109.2 1.239
-24.6 -109.2 1.164
-24.700001 -109.2 1.0865
-24.799999 -109.2 1.0075001
-24.9 -109.2 0.93449998
-25 -109.2 0.8635
-25.1 -109.2 0.78850001
-25.200001 -109.2 0.71249998
-25.299999 -109.2 0.62849998
-25.4 -109.2 0.53750002
-25.5 -109.2 0.44800001
-25.6 -109.2 0.35800001
-25.700001 -109.2 0.2705
-5.5 -109.4 15.544
-5.5999999 -109.4 15.4375
-5.6999998 -109.4 15.289
-5.8000002 -109.4 15.221
-5.9000001 -109.4 15.2375
-6 -109.4 15.215
-6.0999999 -109.4 15.1405
-6.1999998 -109.4 15.045
-6.3000002 -109.4 14.8865
-6.4000001 -109.4 14.7555
-6.5 -109.4 14.7665
-6.5999999 -109.4 14.779
-6.6999998 -109.4 14.722
-6.8000002 -109.4 14.65
-6.9000001 -109.4 14.574
-7 -109.4 14.495
-7.0999999 -109.4 14.4185
-7.1999998 -109.4 14.3525
-7.3000002 -109.4 14.2875
-7.4000001 -109.4 14.2195
-7.5 -109.4 14.146
-7.5999999 -109.4 14.063
-7.6999998 -109.4 13.973
-7.8000002 -109.4 13.893
-7.9000001 -109.4 13.8375
-8 -109.4 13.7825
-8.1000004 -109.4 13.7035
-8.1999998 -109.4 13.6155
-8.3000002 -109.4 13.54
-8.3999996 -109.4 13.4695
-8.5 -109.4 13.4055
-8.6000004 -109.4 13.3515
-8.6999998 -109.4 13.2895
-8.8000002 -109.4 13.2175
-8.8999996 -109.4 13.1435
-9 -109.4 13.073
-9.1000004 -109.4 12.9985
-9.1999998 -109.4 12.9045
-9.3000002 -109.4 12.819
-9.3999996 -109.4 12.748
-9.5 -109.4 12.6675
-9.6000004 -109.4 12.5965
-9.6999998 -109.4 12.54
-9.8000002 -109.4 12.468
-9.8999996 -109.4 12.3835
-10 -109.4 12.314
-10.1 -109.4 12.249
-10.2 -109.4 12.1655
-10.3 -109.4 12.0715
-10.4 -109.4 11.995
-10.5 -109.4 11.9405
-10.6 -109.4 11.884
-10.7 -109.4 11.8225
-10.8 -109.4 11.7505
-10.9 -109.4 11.6625
-11 -109.4 11.5745
-11.1 -109.4 11.4975
-11.2 -109.4 11.421
-11.3 -109.4 11.345
-11.4 -109.4 11.2675
-11.5 -109.4 11.1875
-11.6 -109.4 11.1195
-11.7 -109.4 11.0625
-11.8 -109.4 11.0055
-11.9 -109.4 10.9365
-12 -109.4 10.845
-12.1 -109.4 10.7385
-12.2 -109.4 10.632
-12.3 -109.4 10.5395
-12.4 -109.4 10.467
-12.5 -109.4 10.4145
-12.6 -109.4 10.373
-12.7 -109.4 10.3295
-18.1 -109.4 4.6824999
-18.200001 -109.4 4.8299999
-18.299999 -109.4 4.9580002
-18.4 -109.4 5.0735002
-18.5 -109.4 5.1904998
-18.6 -109.4 5.3319998
-18.700001 -109.4 5.4819999
-18.799999 -109.4 5.5605001
-18.9 -109.4 5.533
-19 -109.4 5.4559999
-19.1 -109.4 5.3905001
-19.200001 -109.4 5.3369999
-19.299999 -109.4 5.2839999
-19.4 -109.4 5.2280002
-19.5 -109.4 5.1545
-19.6 -109.4 5.0695
-19.700001 -109.4 5
-19.799999 -109.4 4.9320002
-19.9 -109.4 4.8429999
-20 -109.4 4.763
-20.1 -109.4 4.6995001
-20.200001 -109.4 4.6275001
-20.299999 -109.4 4.5475001
-20.4 -109.4 4.4749999
-20.5 -109.4 4.4025002
-20.6 -109.4 4.3150001
-20.700001 -109.4 4.2315001
-20.799999 -109.4 4.1609998
-20.9 -109.4 4.0815001
-21 -109.4 3.9979999
-21.1 -109.4 3.9300001
-21.200001 -109.4 3.858
-21.299999 -109.4 3.7735
-21.4 -109.4 3.6945
-21.5 -109.4 3.6099999
-21.6 -109.4 3.5190001
-21.700001 -109.4 3.438
-21.799999 -109.4 3.3629999
-21.9 -109.4 3.2869999
-22 -109.4 3.2149999
-22.1 -109.4 3.1475
-22.200001 -109.4 3.0675001
-22.299999 -109.4 2.971
-22.4 -109.4 2.8840001
-22.5 -109.4 2.8125
-22.6 -109.4 2.7360001
-22.700001 -109.4 2.654
-22.799999 -109.4 2.5785
-22.9 -109.4 2.5055001
-23 -109.4 2.4324999
-23.1 -109.4 2.3625
-23.200001 -109.4 2.2939999
-23.299999 -109.4 2.221
-23.4 -109.4 2.1385
-23.5 -109.4 2.0534999
-23.6 -109.4 1.9635
-23.700001 -109.4 1.8695
-23.799999 -109.4 1.7905
-23.9 -109.4 1.719
-24 -109.4 1.645
-24.1 -109.4 1.5745
-24.200001 -109.4 1.499
-24.299999 -109.4 1.4145
-24.4 -109.4 1.3405
-24.5 -109.4 1.275
-24.6 -109.4 1.2005
-24.700001 -109.4 1.1115
-24.799999 -109.4 1.0190001
-24.9 -109.4 0.935
-25 -109.4 0.85750002
-25.1 -109.4 0.77999997
-25.200001 -109.4 0.69999999
-25.299999 -109.4 0.62349999
-25.4 -109.4 0.55000001
-25.5 -109.4 0.46599999
-25.6 -109.4 0.37450001
-25.700001 -109.4 0.28850001
-5.5 -109.6 15.5495
-5.5999999 -109.6 15.477
-5.6999998 -109.6 15.41
-5.8000002 -109.6 15.3445
-5.9000001 -109.6 15.276
-6 -109.6 15.2045
-6.0999999 -109.6 15.13
-6.1999998 -109.6 15.0565
-6.3000002 -109.6 14.9945
-6.4000001 -109.6 14.928
-6.5 -109.6 14.852
-6.5999999 -109.6 14.784
-6.6999998 -109.6 14.7145
-6.8000002 -109.6 14.639
-6.9000001 -109.6 14.57
-7 -109.6 14.4955
-7.0999999 -109.6 14.408
-7.1999998 -109.6 14.3305
-7.3000002 -109.6 14.2785
-7.4000001 -109.6 14.232
-7.5 -109.6 14.1635
-7.5999999 -109.6 14.0835
-7.6999998 -109.6 14.0145
-7.8000002 -109.6 13.938
-7.9000001 -109.6 13.8495
-8 -109.6 13.771
-8.1000004 -109.6 13.686
-8.1999998 -109.6 13.5965
-8.3000002 -109.6 13.531
-8.3999996 -109.6 13.4785
-8.5 -109.6 13.42
-8.6000004 -109.6 13.352
-8.6999998 -109.6 13.2765
-8.8000002 -109.6 13.1965
-8.8999996 -109.6 13.1235
-9 -109.6 13.067
-9.1000004 -109.6 12.9995
-9.1999998 -109.6 12.9115
-9.3000002 -109.6 12.83
-9.3999996 -109.6 12.7505
-9.5 -109.6 12.6635
-9.6000004 -109.6 12.5875
-9.6999998 -109.6 12.532
-9.8000002 -109.6 12.4725
-9.8999996 -109.6 12.3895
-10 -109.6 12.3165
-10.1 -109.6 12.25
-10.2 -109.6 12.163
-10.3 -109.6 12.089
-10.4 -109.6 12.03
-10.5 -109.6 11.954
-10.6 -109.6 11.871
-10.7 -109.6 11.794
-10.8 -109.6 11.72
-10.9 -109.6 11.649
-11 -109.6 11.585
-11.1 -109.6 11.5185
-11.2 -109.6 11.4475
-11.3 -109.6 11.3785
-11.4 -109.6 11.306
-11.5 -109.6 11.217
-11.6 -109.6 11.12
-11.7 -109.6 11.0395
-11.8 -109.6 10.973
-11.9 -109.6 10.9025
-12 -109.6 10.82
-12.1 -109.6 10.7195
-12.2 -109.6 10.62
-12.3 -109.6 10.5545
-12.4 -109.6 10.5005
-12.5 -109.6 10.436
-12.6 -109.6 10.3885
-12.7 -109.6 10.367
-18.1 -109.6 4.526
-18.200001 -109.6 4.6269999
-18.299999 -109.6 4.7564998
-18.4 -109.6 4.9159999
-18.5 -109.6 5.0735002
-18.6 -109.6 5.2275
-18.700001 -109.6 5.3600001
-18.799999 -109.6 5.4419999
-18.9 -109.6 5.473
-19 -109.6 5.4590001
-19.1 -109.6 5.4039998
-19.200001 -109.6 5.3305001
-19.299999 -109.6 5.2680001
-19.4 -109.6 5.204
-19.5 -109.6 5.1220002
-19.6 -109.6 5.0514998
-19.700001 -109.6 5.0035
-19.799999 -109.6 4.9324999
-19.9 -109.6 4.8274999
-20 -109.6 4.7375002
-20.1 -109.6 4.6735001
-20.200001 -109.6 4.6094999
-20.299999 -109.6 4.5339999
-20.4 -109.6 4.4575
-20.5 -109.6 4.3889999
-20.6 -109.6 4.3140001
-20.700001 -109.6 4.2350001
-20.799999 -109.6 4.1560001
-20.9 -109.6 4.0714998
-21 -109.6 3.9955001
-21.1 -109.6 3.9300001
-21.200001 -109.6 3.8515
-21.299999 -109.6 3.7609999
-21.4 -109.6 3.6805
-21.5 -109.6 3.6099999
-21.6 -109.6 3.536
-21.700001 -109.6 3.4614999
-21.799999 -109.6 3.3935001
-21.9 -109.6 3.3164999
-22 -109.6 3.2290001
-22.1 -109.6 3.1500001
-22.200001 -109.6 3.0710001
-22.299999 -109.6 2.9835
-22.4 -109.6 2.8954999
-22.5 -109.6 2.8195
-22.6 -109.6 2.7555001
-22.700001 -109.6 2.6784999
-22.799999 -109.6 2.5845001
-22.9 -109.6 2.487
-23 -109.6 2.3994999
-23.1 -109.6 2.335
-23.200001 -109.6 2.2739999
-23.299999 -109.6 2.197
-23.4 -109.6 2.1229999
-23.5 -109.6 2.0580001
-23.6 -109.6 1.977
-23.700001 -109.6 1.8785
-23.799999 -109.6 1.79
-23.9 -109.6 1.722
-24 -109.6 1.6665
-24.1 -109.6 1.6025
-24.200001 -109.6 1.5215
-24.299999 -109.6 1.429
-24.4 -109.6 1.3265001
-24.5 -109.6 1.2345001
-24.6 -109.6 1.165
-24.700001 -109.6 1.098
-24.799999 -109.6 1.0305001
-24.9 -109.6 0.95599997
-25 -109.6 0.87050003
-25.1 -109.6 0.79299998
-25.200001 -109.6 0.71649998
-25.299999 -109.6 0.6275
-25.4 -109.6 0.5345
-25.5 -109.6 0.44499999
-25.6 -109.6 0.36050001
-25.700001 -109.6 0.27599999
-5.5 -109.8 15.56
-5.5999999 -109.8 15.488
-5.6999998 -109.8 15.4245
-5.8000002 -109.8 15.3615
-5.9000001 -109.8 15.2915
-6 -109.8 15.213
-6.0999999 -109.8 15.126
-6.1999998 -109.8 15.051
-6.3000002 -109.8 15.0025
-6.4000001 -109.8 14.945
-6.5 -109.8 14.8635
-6.5999999 -109.8 14.796
-6.6999998 -109.8 14.7485
-6.8000002 -109.8 14.6745
-6.9000001 -109.8 14.5715
-7 -109.8 14.482
-7.0999999 -109.8 14.4075
-7.1999998 -109.8 14.3435
-7.3000002 -109.8 14.295
-7.4000001 -109.8 14.245
-7.5 -109.8 14.1815
-7.5999999 -109.8 14.1025
-7.6999998 -109.8 14.0075
-7.8000002 -109.8 13.933
-7.9000001 -109.8 13.8785
-8 -109.8 13.807
-8.1000004 -109.8 13.722
-8.1999998 -109.8 13.6295
-8.3000002 -109.8 13.549
-8.3999996 -109.8 13.4915
-8.5 -109.8 13.4285
-8.6000004 -109.8 13.352
-8.6999998 -109.8 13.2775
-8.8000002 -109.8 13.2025
-8.8999996 -109.8 13.125
-9 -109.8 13.068
-9.1000004 -109.8 13.014
-9.1999998 -109.8 12.9285
-9.3000002 -109.8 12.837
-9.3999996 -109.8 12.752
-9.5 -109.8 12.6655
-9.6000004 -109.8 12.593
-9.6999998 -109.8 12.5345
-9.8000002 -109.8 12.4705
-9.8999996 -109.8 12.391
-10 -109.8 12.3075
-10.1 -109.8 12.219
-10.2 -109.8 12.136
-10.3 -109.8 12.07
-10.4 -109.8 12
-10.5 -109.8 11.9275
-10.6 -109.8 11.8625
-10.7 -109.8 11.7995
-10.8 -109.8 11.733
-10.9 -109.8 11.665
-11 -109.8 11.6005
-11.1 -109.8 11.523
-11.2 -109.8 11.429
-11.3 -109.8 11.3435
-11.4 -109.8 11.2715
-11.5 -109.8 11.198
-11.6 -109.8 11.128
-11.7 -109.8 11.0625
-11.8 -109.8 10.9845
-11.9 -109.8 10.896
-12 -109.8 10.8115
-12.1 -109.8 10.7205
-12.2 -109.8 10.6315
-12.3 -109.8 10.5545
-12.4 -109.8 10.4865
-12.5 -109.8 10.4555
-12.6 -109.8 10.459
-18.200001 -109.8 4.6665001
-18.299999 -109.8 4.8060002
-18.4 -109.8 4.8629999
-18.5 -109.8 4.9495001
-18.6 -109.8 5.1034999
-18.700001 -109.8 5.2645001
-18.799999 -109.8 5.3850002
-18.9 -109.8 5.4285002
-19 -109.8 5.4155002
-19.1 -109.8 5.3759999
-19.200001 -109.8 5.3210001
-19.299999 -109.8 5.2595
-19.4 -109.8 5.1975002
-19.5 -109.8 5.1290002
-19.6 -109.8 5.0539999
-19.700001 -109.8 4.9984999
-19.799999 -109.8 4.9475002
-19.9 -109.8 4.8685002
-20 -109.8 4.7795
-20.1 -109.8 4.6904998
-20.200001 -109.8 4.5984998
-20.299999 -109.8 4.5184999
-20.4 -109.8 4.4575
-20.5 -109.8 4.3959999
-20.6 -109.8 4.3165002
-20.700001 -109.8 4.237
-20.799999 -109.8 4.1659999
-20.9 -109.8 4.0890002
-21 -109.8 3.9995
-21.1 -109.8 3.9224999
-21.200001 -109.8 3.8594999
-21.299999 -109.8 3.7820001
-21.4 -109.8 3.7025001
-21.5 -109.8 3.6259999
-21.6 -109.8 3.5295
-21.700001 -109.8 3.4335001
-21.799999 -109.8 3.3670001
-21.9 -109.8 3.306
-22 -109.8 3.233
-22.1 -109.8 3.161
-22.200001 -109.8 3.079
-22.299999 -109.8 2.98
-22.4 -109.8 2.895
-22.5 -109.8 2.8340001
-22.6 -109.8 2.7625
-22.700001 -109.8 2.6800001
-22.799999 -109.8 2.6025
-22.9 -109.8 2.5209999
-23 -109.8 2.4345
-23.1 -109.8 2.3529999
-23.200001 -109.8 2.2720001
-23.299999 -109.8 2.1930001
-23.4 -109.8 2.1264999
-23.5 -109.8 2.0634999
-23.6 -109.8 1.9915
-23.700001 -109.8 1.9125
-23.799999 -109.8 1.829
-23.9 -109.8 1.7415
-24 -109.8 1.6555001
-24.1 -109.8 1.5755
-24.200001 -109.8 1.502
-24.299999 -109.8 1.4225
-24.4 -109.8 1.3329999
-24.5 -109.8 1.2515
-24.6 -109.8 1.176
-24.700001 -109.8 1.096
-24.799999 -109.8 1.017
-24.9 -109.8 0.93699998
-25 -109.8 0.85799998
-25.1 -109.8 0.78850001
-25.200001 -109.8 0.713
-25.299999 -109.8 0.61900002
-25.4 -109.8 0.528
-25.5 -109.8 0.44299999
-25.6 -109.8 0.35100001
-25.700001 -109.8 0.26699999
-5.5 -110 15.545
-5.5999999 -110 15.467
-5.6999998 -110 15.4105
-5.8000002 -110 15.351
-5.9000001 -110 15.292
-6 -110 15.234
-6.0999999 -110 15.156
-6.1999998 -110 15.0695
-6.3000002 -110 15
-6.4000001 -110 14.9495
-6.5 -110 14.89
-6.5999999 -110 14.8145
-6.6999998 -110 14.74
-6.8000002 -110 14.654
-6.9000001 -110 14.572
-7 -110 14.515
-7.0999999 -110 14.4535
-7.1999998 -110 14.3755
-7.3000002 -110 14.301
-7.4000001 -110 14.231
-7.5 -110 14.152
-7.5999999 -110 14.075
-7.6999998 -110 14.0105
-7.8000002 -110 13.9395
-7.9000001 -110 13.856
-8 -110 13.7815
-8.1000004 -110 13.7105
-8.1999998 -110 13.627
-8.3000002 -110 13.5525
